# .PCD v0.7 - Point Cloud Data file format
VERSION 0.7
FIELDS x y z intensity
SIZE 4 4 4 4
TYPE F F F F
COUNT 1 1 1 1
WIDTH 938
HEIGHT 1
VIEWPOINT 0 0 0 1 0 0 0
POINTS 938
DATA ascii
9.631454468 10.88013363 0.906920433 0.9434272647 
9.58470726 10.91540623 0.9066412449 0.9434440732 
9.514657974 10.92391109 0.9041637778 0.9435942769 
9.432050705 11.09647179 0.9089654088 0.9433034062 
9.412959099 11.1646595 0.9114428759 0.9431532621 
9.434042931 11.28137684 0.9178686142 0.9427642226 
33.12795258 39.94009399 3.238720655 0.8122332096 
30.83078957 37.78472137 3.043743134 0.8224663734 
30.63390541 37.85306168 3.039303541 0.8227008581 
30.34887695 37.81070328 3.026082039 0.823399663 
32.50366592 40.83043289 3.257275343 0.8112660646 
32.3844223 41.01797104 3.261824369 0.8110291958 
32.22792435 41.50146866 3.279562235 0.8101059198 
31.89050293 42.10549164 3.296658754 0.8092169166 
31.52656746 42.32780075 3.294114351 0.8093492985 
34.05041122 46.88619614 3.616640568 0.7927595973 
29.2533493 41.31980896 3.159826517 0.8163584471 
28.83769417 42.15391159 3.18773675 0.8148966432 
29.38029289 43.69683456 3.286445856 0.8097478747 
29.26900291 43.9115181 3.293714523 0.8093699217 
29.15733337 44.12732315 3.301082611 0.8089870214 
2.501327991 10.87265396 0.6963320971 0.95627141 
2.373622894 10.91858387 0.6973894835 0.9562065005 
2.327714682 10.91862011 0.696788311 0.9562433958 
2.230458975 10.8911171 0.6938665509 0.9564228058 
2.181083918 10.87218857 0.6920962334 0.9565315247 
2.056533098 10.93344593 0.6943664551 0.9563921094 
2.007539034 10.91432762 0.6926342845 0.9564985037 
1.977050781 10.99683094 0.6973596215 0.9562082887 
1.927460909 10.97418404 0.6954269409 0.9563270211 
1.867958903 10.89215565 0.6897466779 0.9566758275 
11.69508743 99.00315857 6.222142696 0.6706270576 
6.475839615 98.99282074 6.191740036 0.6719375849 
6.076279163 98.99230957 6.190129757 0.6720070243 
5.676904202 98.9917984 6.188621044 0.6720721722 
5.277705193 98.99128723 6.187212467 0.6721329689 
4.081035137 98.98719788 6.183432102 0.6722961664 
0.7592285275 35.96811295 2.245411873 0.8657279611 
-5.063086033 75.07964325 4.696668625 0.7396439314 
-5.366542816 75.08255768 4.698161602 0.7395730019 
-5.973788738 75.08441925 4.701132298 0.7394319773 
-0.7271386385 8.697075844 0.5447143316 0.9656270146 
-0.7918164134 8.63404274 0.5411477685 0.9658482075 
-0.8259277344 8.624490738 0.5407531857 0.965872705 
-0.931542933 8.629431725 0.5417276025 0.9658122659 
-0.9694335461 8.654227257 0.5435208082 0.9657008052 
-30.30170822 71.47303772 4.845265388 0.7326195836 
-30.37764549 70.85803986 4.811813831 0.7341949344 
-30.44404221 70.23200989 4.777574539 0.7358109355 
-30.70952034 70.07125092 4.774997234 0.7359327674 
-30.90197182 69.74629211 4.761279106 0.7365812063 
-31.7973423 70.23700714 4.812076092 0.7341825962 
-30.90211868 63.4450264 4.40459156 0.7536465526 
-30.89900398 62.16415787 4.332775116 0.7571300864 
-29.6583004 59.07105255 4.125465393 0.7672763467 
-30.89451027 60.31890106 4.229825974 0.7621518373 
-30.89306641 59.72312546 4.1967206 0.7637736201 
-30.89163017 59.13660049 4.164196014 0.7653703094 
-30.88884735 57.99034119 4.100836754 0.7684906125 
-30.88747978 57.43022919 4.069977283 0.7700150609 
-24.71578979 44.65550995 3.185549974 0.8150111437 
-24.71476555 44.23303986 3.162474871 0.8162196875 
-24.75060463 43.88195801 3.144460917 0.8171643019 
-24.98332977 43.88138962 3.151591778 0.8167902231 
-30.8760643 52.74185944 3.8144207 0.7827550769 
-25.34008789 42.49802017 3.088200092 0.8201218843 
-25.50242043 42.38203049 3.087196589 0.8201747537 
-31.07462883 51.17559052 3.7368083 0.7866662145 
-31.2493248 51.0000267 3.73312664 0.7868519425 
-31.4236908 50.82481766 3.729523182 0.7870342731 
-31.59770393 50.64995575 3.725983143 0.7872132659 
-31.77142525 50.47539139 3.722506523 0.7873889804 
-32.11783981 50.127285 3.715753794 0.7877303362 
-32.29061508 49.9536705 3.712482214 0.7878960371 
-32.4630661 49.78037643 3.709264517 0.7880585194 
-32.80709839 49.43466187 3.703043699 0.7883735895 
-32.97867203 49.26224899 3.700026274 0.7885261774 
-33.14999008 49.09010696 3.697077036 0.7886755466 
-33.32103348 48.91822815 3.694191217 0.7888217568 
-33.66229248 48.57530212 3.688610077 0.7891044021 
-33.83259583 48.40416336 3.685919762 0.7892410159 
-34.00262451 48.23331451 3.683287859 0.7893743515 
-34.34194183 47.89234161 3.67821455 0.7896314859 
-34.68031311 47.55230713 3.673390388 0.7898759842 
-34.84919739 47.38259125 3.671071053 0.7899935842 
-35.01787949 47.21310043 3.668820143 0.7901079655 
-35.35461807 46.87472153 3.664494038 0.7903273702 
-35.85829926 46.36857224 3.658473492 0.7906332016 
-36.0257988 46.20025253 3.656583786 0.7907289267 
-36.19316483 46.03208542 3.654762506 0.7908215523 
-36.6942749 45.52851868 3.649655104 0.7910810709 
-36.86102295 45.36096191 3.648072958 0.7911614776 
-37.02762604 45.19354248 3.646544695 0.7912387848 
-37.19408035 45.02627182 3.645079851 0.7913131118 
-30.83708 36.72525024 2.993053436 0.8251478076 
-30.83563423 36.12963486 2.964620829 0.8266556263 
-30.83350563 35.25704956 2.923317194 0.8288508058 
-30.83281136 34.97154999 2.909899235 0.8295652866 
-30.83212852 34.68868256 2.89665699 0.830271244 
-30.83144379 34.40830231 2.883575916 0.8309691548 
-30.8300972 33.85518646 2.857897282 0.8323402405 
-30.82943344 33.58224106 2.845294714 0.8330139518 
-30.82683563 32.51414108 2.79644227 0.8356314301 
-30.82494164 31.73668098 2.761344433 0.8375166655 
-30.82431602 31.48186684 2.749928474 0.8381306529 
-30.82369995 31.22909546 2.738654137 0.8387378454 
-30.82309532 30.97841644 2.72752142 0.8393380046 
-30.82188416 30.48300552 2.705631733 0.8405183554 
-30.82011604 29.75463867 2.67377615 0.8422392011 
-30.81953049 29.51566124 2.663414955 0.842799902 
-30.81895447 29.27851295 2.653175592 0.843354404 
-30.81781197 28.80958748 2.633048534 0.8444449306 
-30.81558609 27.89265823 2.594201088 0.8465541005 
-30.81449127 27.44417381 2.575446129 0.8475740552 
-30.81341743 27.00210953 2.557130575 0.8485715985 
-30.81287956 26.7834301 2.548121929 0.8490621448 
-30.81027222 25.71248055 2.504659891 0.8514353037 
-30.80976486 25.50265503 2.496271372 0.8518944383 
-30.80925751 25.29421616 2.487965584 0.8523485661 
-30.80825043 24.88146019 2.471652269 0.8532420397 
-30.80775261 24.67708206 2.463629723 0.8536815047 
-30.80725479 24.47401047 2.455704927 0.8541162014 
-31.09015465 23.89354706 2.447311401 0.8545767069 
-31.31457901 23.66802216 2.449918747 0.8544335961 
-31.42697144 23.55507469 2.451285839 0.8543586731 
-31.53950119 23.44199944 2.45269227 0.8542814851 
-31.65216637 23.32878113 2.454132557 0.8542020321 
-31.9909668 22.98833656 2.458737135 0.8539500833 
-32.10417938 22.87457275 2.460348368 0.8538615704 
-32.21754837 22.76063919 2.46199894 0.8537707329 
-32.33107376 22.64656639 2.463702917 0.8536776304 
-32.90118027 22.07367706 2.472833872 0.853177309 
-33.01571274 21.95859146 2.47478199 0.8530701995 
-33.13044739 21.84329033 2.476788998 0.852960825 
-33.47574997 21.49630547 2.483038902 0.8526183963 
-33.70694351 21.2639904 2.487418652 0.8523782492 
-33.93897247 21.03081894 2.491984129 0.8521285057 
-34.05531311 20.91392136 2.49433279 0.8519999385 
-34.40569305 20.56183243 2.501657009 0.8515996933 
-34.87615204 20.08906555 2.512047768 0.8510316014 
-34.99437332 19.97025871 2.514762402 0.8508833647 
-35.11286926 19.85119438 2.51752615 0.8507325053 
-35.23163986 19.73184395 2.520328999 0.8505792022 
-35.70938492 19.2517662 2.532028198 0.8499403 
-29.36135674 15.67739964 2.077429056 0.8751168847 
-29.29945183 15.4932909 2.068626165 0.8756117821 
-29.03125954 14.90627003 2.036849976 0.8774002194 
-29.39208031 14.64635754 2.049621582 0.876680851 
-29.99184418 13.18022919 2.044692278 0.8769584298 
-30.06608391 13.068923 2.046156645 0.8768759966 
-30.21522331 12.845891 2.049208879 0.8767040968 
-39.07076263 15.87399006 2.632145405 0.8444939256 
-39.46175766 15.4810791 2.645709753 0.8437584043 
-32.60329056 12.63946247 2.182463408 0.8692344427 
-39.72472382 15.21683598 2.655045748 0.8432524204 
-39.856884 15.08402157 2.659821033 0.8429947495 
-39.9895401 14.95072842 2.664640427 0.84273386 
-40.9282608 14.9277401 2.719098568 0.8397916555 
-41.4416008 14.92648983 2.749196053 0.8381703496 
-27.11606407 9.521113396 1.793721318 0.8912058473 
-28.00337791 9.454904556 1.844761968 0.8882910013 
-45.3812294 14.91690254 2.981515408 0.8257595301 
-37.38273239 10.64348698 2.425808668 0.8557507992 
-60.42416 14.6061964 3.879930973 0.7794694901 
-61.16691208 14.26622009 3.920130014 0.7774599195 
-60.67568207 13.89469242 3.885037661 0.7792139053 
-60.47017288 12.82794285 3.858173847 0.780559361 
-60.86368942 12.65598202 3.88000226 0.7794659138 
-66.89813995 9.475092888 4.217051983 0.7627772689 
-66.99491882 8.118914604 4.212014198 0.7630241513 
-91.72532654 -12.99146175 3.466371298 0.6901664734 
-72.48748016 -12.65638256 2.753325224 0.7448723912 
-70.77197266 -12.65022755 2.690073252 0.7499296069 
-66.77976227 -12.7695446 2.543998241 0.7617406845 
-63.11148453 -21.02635956 2.489073992 0.7662292123 
-62.26945114 -21.02430916 2.459171772 0.7686836123 
-59.86037064 -21.01844597 2.373873949 0.7757303119 
-59.09402084 -21.01657867 2.346813202 0.7779790759 
-56.19535065 -21.00952339 2.244826078 0.7865136862 
-54.83831787 -21.00621986 2.197291851 0.7905232906 
-52.28931427 -21.00001717 2.108414888 0.7980751991 
-51.68384552 -20.99854279 2.087389469 0.7998723984 
-51.0904007 -20.99709892 2.066813231 0.8016349673 
-49.93783951 -20.99429321 2.026950121 0.8050607443 
-49.37811279 -20.99293137 2.007633686 0.8067255616 
-48.8288269 -20.99159431 1.988717556 0.8083598018 
-47.76079178 -20.9889946 1.952033043 0.8115388155 
-47.24144363 -20.98772812 1.934235215 0.8130850792 
-46.23045731 -20.98526764 1.899689317 0.816095531 
-45.73844528 -20.98407173 1.882921696 0.8175606728 
-45.61124802 -21.14806366 1.881168723 0.8177139163 
-45.61070251 -21.37101936 1.884679556 0.8174072504 
-45.60961914 -21.81941605 1.891823053 0.8167828918 
-26.97342682 -13.03744507 1.120987773 0.8869915605 
-26.87147331 -13.12169743 1.118933678 0.8871864676 
-45.60741043 -22.72662354 1.906642437 0.8154888749 
-45.60684586 -22.95565605 1.91046083 0.8151558042 
-45.60628891 -23.18563461 1.914327979 0.8148187995 
-45.60516357 -23.64839363 1.922199011 0.8141329288 
-45.604599 -23.8812294 1.9262079 0.8137840033 
-45.60287857 -24.58559227 1.938512564 0.812713027 
-45.60172653 -25.06023598 1.946969509 0.8119784594 
-45.59938431 -26.02222443 1.964484215 0.8104586601 
-45.59878922 -26.26542473 1.968986154 0.8100680113 
-45.59820175 -26.50977898 1.973546743 0.8096728921 
-45.59759521 -26.75527 1.978160977 0.8092734218 
-45.59700012 -27.00190926 1.982828975 0.8088694215 
-45.59639359 -27.2497139 1.987550616 0.8084610105 
-45.59579086 -27.49871826 1.992326021 0.8080480099 
-45.59457016 -28.00034142 2.002047777 0.8072083592 
-45.59333801 -28.50692368 2.011989117 0.8063499928 
-45.44669724 -29.18338394 2.020905018 0.8055815101 
-44.64999771 -29.18144417 1.99584651 0.807743907 
-43.87277222 -29.17955208 1.97153008 0.8098480701 
-42.00974655 -29.17501831 1.913776159 0.8148668408 
-40.94315338 -29.1724205 1.881075978 0.8177222013 
-40.59563446 -29.17157555 1.870485187 0.8186493516 
-40.25202942 -29.17073822 1.860036016 0.8195645809 
-39.2437973 -29.16828537 1.829576969 0.8222401738 
-38.91500092 -29.16748428 1.819699049 0.823109448 
-37.94952011 -29.16513634 1.790866017 0.8256519437 
-37.6916008 -29.20871544 1.784225464 0.8262389898 
-37.68861389 -30.43820953 1.812672734 0.8237274885 
-37.68799591 -30.68883705 1.818571091 0.8232087493 
-37.68614197 -31.45072937 1.83665216 0.8216180205 
-37.68551636 -31.70806503 1.842809439 0.8210761547 
-37.68424606 -32.2280159 1.855363131 0.8199746609 
-37.68296814 -32.75510788 1.868204951 0.8188489079 
-37.68232346 -33.0214386 1.874738097 0.8182767034 
-37.68101501 -33.55968857 1.888038874 0.8171135187 
-37.67967606 -34.10568237 1.901652217 0.8159245253 
-37.6790123 -34.3816452 1.908576012 0.8153201938 
-37.67832947 -34.65962219 1.915582895 0.8147092462 
-37.67696381 -35.2217598 1.929845572 0.8134669065 
-37.67626953 -35.50604248 1.937106252 0.8128353357 
-37.67557526 -35.79241562 1.944454908 0.8121967912 
-37.67416763 -36.37176514 1.959411025 0.8108983636 
-37.67345428 -36.66480255 1.967018366 0.8102383018 
-37.66905212 -38.47262955 2.014669657 0.8061190248 
-37.66521454 -40.048069 2.057106256 0.8024677634 
-37.66364288 -40.69709015 2.074821234 0.8009483218 
-37.66202927 -41.35747528 2.092980385 0.7993936539 
-37.66122055 -41.69198227 2.102233171 0.7986029387 
-37.65787888 -43.06049728 2.140426636 0.7953468561 
-37.65703201 -43.41046143 2.150285006 0.7945088744 
-37.65616989 -43.7636528 2.160260677 0.7936611772 
-37.65530014 -44.12015152 2.170363188 0.7928034663 
-37.65354538 -44.84325409 2.19097352 0.7910575271 
-37.65174866 -45.58032608 2.212125778 0.789269805 
-37.64992142 -46.33180237 2.233829975 0.7874391079 
-45.03917694 -55.88247299 2.685555935 0.7502915859 
-44.66912842 -55.88157654 2.676864624 0.7509897351 
-43.93603516 -55.87978745 2.659769773 0.7523642182 
-43.5729866 -55.87891006 2.651368856 0.7530406713 
-43.21224594 -55.87803268 2.643065691 0.7537099719 
-42.85369873 -55.8771553 2.63485527 0.7543724179 
-42.49742126 -55.87629318 2.62673521 0.7550277114 
-41.79132843 -55.87457275 2.610773325 0.7563179731 
-41.44143295 -55.87371826 2.602926493 0.7569530606 
-39.04941177 -55.86790466 2.550446033 0.7612150311 
-38.38340759 -55.86628342 2.536198139 0.7623758316 
-38.0206337 -56.30278778 2.542147875 0.7618982792 
-25.34062386 -38.184021 1.714745998 0.8324030042 
-38.01578903 -58.29519272 2.604140043 0.7568601966 
-38.01454163 -58.80861282 2.62033391 0.7555587888 
-37.85971451 -59.61501312 2.642445564 0.7537600994 
-37.18954086 -59.61338425 2.629034996 0.7548421621 
-34.26256943 -59.62091827 2.572992563 0.7593814135 
-34.2612114 -60.17732239 2.591041803 0.7579168081 
-34.25983429 -60.74147415 2.609376669 0.7564312816 
-34.25703049 -61.89419937 2.646976948 0.7533946037 
-34.25413895 -63.08073044 2.685856342 0.7502676249 
-34.25266647 -63.68726349 2.705795288 0.7486689687 
-34.24964905 -64.92765045 2.74670577 0.7453995347 
-34.24653244 -66.20619202 2.78905201 0.7420302629 
-34.24494171 -66.86031342 2.810787916 0.7403069735 
-34.24000931 -68.88579559 2.878368378 0.7349741459 
-34.23659134 -70.29113007 2.925494909 0.7312782407 
-34.23305511 -71.74337006 2.974386454 0.7274635434 
-34.22940445 -73.24514771 3.025141001 0.7235244513 
-34.22752762 -74.01535034 3.051242113 0.721506834 
-1.68966794 -12.37753105 0.4674038589 0.9512253404 
-1.633007765 -12.33215809 0.4654675126 0.9514253139 
-1.531201124 -12.32393074 0.4646780193 0.9515057802 
-1.437656164 -12.38396358 0.4664907753 0.9513213038 
-0.574257791 -81.63169098 3.054518461 0.7212544084 
2.982441425 -52.00697327 1.949158311 0.8117884398 
2.935683489 -42.26705551 1.585330129 0.8440073133 
3.106415987 -42.26663971 1.585768342 0.843967557 
2.818789005 -32.91731262 1.236183405 0.8761275411 
2.952099562 -32.91698837 1.236608267 0.8760878444 
3.085527182 -32.91666031 1.237055063 0.8760462403 
3.352617025 -32.91601181 1.238003492 0.8759573698 
3.754101515 -32.91503525 1.239581823 0.8758097291 
3.051982403 -24.16671753 0.9114361405 0.9070997238 
3.150702953 -24.16647911 0.9118939042 0.9070549607 
3.249521494 -24.16623688 0.9123724103 0.9070087671 
3.44748044 -24.16575623 0.9133636355 0.90691185 
3.546630859 -24.16551399 0.9138897657 0.9068611264 
3.745263577 -24.16502953 0.9149773717 0.9067553282 
2.816064358 -17.25207329 0.6540569663 0.9324213266 
2.885771513 -16.82710266 0.6388140917 0.9339439869 
2.955419779 -16.82693481 0.6392559409 0.9339000583 
3.02517581 -16.82676315 0.6397002935 0.9338550568 
3.095019579 -16.8265934 0.6401666403 0.9338089824 
3.164970636 -16.82642365 0.6406304836 0.9337618351 
3.235029221 -16.82625198 0.6411236525 0.9337134957 
3.305185556 -16.82608032 0.6416204572 0.9336641431 
3.375458956 -16.82591057 0.6421245933 0.9336135983 
3.516347647 -16.82556725 0.6431634426 0.9335092306 
3.5869627 -16.82539558 0.6437078714 0.933455348 
3.728554487 -16.82505035 0.6448187232 0.933344245 
3.870644331 -16.82470512 0.6459869146 0.9332285523 
3.941884756 -16.82453346 0.64657408 0.9331690073 
4.013251781 -16.82435608 0.6471868753 0.9331083298 
4.084765434 -16.82418251 0.6478021145 0.9330464602 
4.372207165 -16.82348251 0.6503973007 0.9327873588 
4.516816139 -16.82313156 0.6517645121 0.9326507449 
4.734892368 -16.82259941 0.653909266 0.9324368238 
4.807909966 -16.82242203 0.6546612382 0.9323630929 
15.07389641 -51.9508934 2.024039984 0.8053117394 
15.75507736 -51.94923782 2.031226158 0.8046925068 
15.98325157 -51.94868088 2.033690691 0.8044794798 
16.44123077 -51.94756699 2.038771391 0.8040437102 
14.68805599 -42.23845291 1.673309922 0.8361034989 
15.06945324 -42.23751831 1.678004742 0.8356825113 
15.26093674 -42.23705292 1.680410743 0.8354675174 
16.03262711 -42.23517609 1.690387487 0.8345774412 
16.22698212 -42.23470306 1.692965627 0.8343473077 
16.42194366 -42.23422623 1.695564508 0.8341140747 
14.36613274 -33.69688034 1.37063539 0.8636147976 
14.36432552 -32.95566559 1.345103145 0.8659734726 
14.96849537 -32.88773727 1.352055073 0.8653365374 
15.44939423 -32.88656235 1.359535456 0.8646413684 
15.77300739 -32.88577652 1.36472106 0.8641636372 
16.26312447 -32.88458252 1.37271297 0.8634252548 
36.53788376 -73.13948059 3.059174776 0.7208951116 
26.48189354 -52.48120117 2.199542761 0.7903330326 
26.48061371 -51.95828629 2.182040453 0.791811645 
26.7258873 -51.92253113 2.185050726 0.7915581465 
26.99012566 -51.92189026 2.189562321 0.7911754251 
27.25548744 -51.92124557 2.194120407 0.7907882333 
27.5219326 -51.92059326 2.198768854 0.7903966308 
28.32816315 -51.91863251 2.212993622 0.7891947627 
39.40309906 -71.5308609 3.055707932 0.7211623788 
39.79547119 -71.56098175 3.06380415 0.7205380797 
40.1174736 -71.46212006 3.066448927 0.720334053 
14.50469685 -24.89123535 1.078080416 0.8910838366 
14.5041399 -24.66183853 1.070574284 0.8917912245 
14.50359344 -24.43558121 1.063323379 0.8924878836 
14.50304699 -24.21237183 1.056167603 0.8931740522 
14.72367191 -24.13830757 1.057943702 0.8929926157 
14.99085903 -24.13765907 1.063187838 0.8924941421 
15.26071262 -24.13699913 1.068514943 0.8919843435 
15.39666939 -24.13666725 1.071212769 0.8917251825 
15.67066383 -24.13599968 1.076763272 0.8911980391 
15.80873966 -24.13566589 1.079567194 0.8909300566 
16.22733307 -24.13464546 1.088189006 0.8901079893 
38.20223236 -52.60308838 2.432556629 0.7708758116 
38.32849503 -51.89429092 2.413947105 0.7724116445 
38.65128326 -51.8935051 2.421179771 0.7718192935 
38.97600174 -51.89271545 2.428395271 0.7712206244 
39.30266953 -51.89191818 2.435756207 0.7706155181 
39.63131332 -51.8911171 2.443193913 0.7700040936 
39.96200562 -51.89031219 2.450598717 0.7693860531 
40.29473114 -51.88950729 2.458282948 0.7687613368 
26.36542892 -33.39434433 1.592106342 0.8434029222 
26.59263611 -32.85944366 1.581715703 0.8443350792 
14.39635754 -17.35670662 0.8437469006 0.9136900902 
14.39601517 -17.21498299 0.8396673203 0.9140892625 
14.39567375 -17.07462502 0.8356329203 0.9144834876 
14.39533138 -16.93559837 0.8316778541 0.9148727655 
14.3949995 -16.79789352 0.8277398348 0.9152572155 
14.75033188 -16.7982235 0.8364934921 0.914403677 
14.87008762 -16.79793167 0.8394110203 0.9141145945 
15.11217785 -16.7973423 0.8454461694 0.9135265946 
15.23452091 -16.79704475 0.8485174179 0.9132275581 
15.35777283 -16.79674339 0.8516167998 0.9129250646 
15.4819231 -16.79644012 0.8547515869 0.9126191735 
15.60699177 -16.79613686 0.8579083085 0.9123097062 
15.73299789 -16.79583168 0.8611248732 0.9119966626 
15.98785114 -16.79520988 0.8676483035 0.911359787 
16.1167469 -16.79489517 0.8710150123 0.9110357761 
16.24661064 -16.79457855 0.8743267655 0.9107080698 
16.37751007 -16.79426003 0.8777447343 0.9103765488 
26.50469589 -24.8775425 1.360071421 0.8645851016 
26.50420761 -24.67743111 1.355013967 0.8650594354 
26.50325203 -24.28167915 1.344915152 0.8659921288 
26.95990181 -24.10852432 1.353241563 0.8652216792 
27.39888573 -24.10745239 1.365542531 0.864087522 
27.62137604 -24.10691071 1.37174499 0.8635101914 
28.07254791 -24.10581207 1.384506226 0.8623344302 
28.30129814 -24.10525513 1.391011357 0.8617358208 
38.85965729 -32.82958221 1.903530836 0.8157672286 
39.17714691 -32.82880783 1.912537217 0.8149759769 
39.49765396 -32.82802582 1.921742558 0.8141751885 
48.62604904 -33.62524033 2.211971998 0.7892717123 
48.62534714 -33.33660507 2.205971003 0.7897908688 
48.62464905 -33.04958344 2.199851751 0.7903044224 
26.39706993 -17.63317299 1.187843561 0.8806736469 
26.39668846 -17.47986984 1.184572101 0.8809741139 
26.39558601 -17.02482414 1.17522645 0.8818556666 
26.70066261 -16.76913452 1.179713726 0.8814319372 
26.93957901 -16.76855278 1.187330961 0.8807185292 
27.18160057 -16.7679615 1.194993258 0.8799946904 
27.42675781 -16.7673645 1.202787399 0.879260242 
27.6751461 -16.76675987 1.210807443 0.8785148859 
28.18191338 -16.76552773 1.22693789 0.8769905567 
48.76485825 -24.91486359 2.048918962 0.8031634092 
48.76425552 -24.66785431 2.044860125 0.8035250902 
48.76366043 -24.42186928 2.040663481 0.8038825989 
49.51077652 -24.05363274 2.059566021 0.8022524118 
50.53538132 -24.05113411 2.094033718 0.7992960811 
38.11696625 -17.58026886 1.570548654 0.845336318 
38.11605835 -17.20958138 1.564777136 0.8458600044 
38.72416306 -16.73986816 1.578562617 0.844620347 
39.5901947 -16.73775673 1.60833919 0.8419352174 
40.03559113 -16.73667336 1.623679757 0.8405540586 
48.65714264 -17.63594437 1.936580181 0.8128867149 
48.65660095 -17.4147892 1.933760285 0.8131322861 
48.65606308 -17.19425583 1.930968642 0.8133745193 
48.65499496 -16.75508881 1.925513268 0.8138489127 
49.17817688 -16.71442032 1.943611383 0.8122806549 
49.83010101 -16.7128334 1.96657896 0.8102765679 
86.25245667 -25.49733162 3.365399122 0.6976619959 
51.49052429 -12.11850929 1.979280353 0.8091770411 
51.53889465 -11.25848198 1.973926902 0.8096407056 
51.5039978 -11.03412247 1.970875144 0.8099050522 
51.53729248 -10.60861874 1.968821406 0.810082972 
73.61343384 -12.3960247 2.793203115 0.7417015433 
73.82906342 -2.820866346 2.764504433 0.7439818978 
73.82160187 -2.523444653 2.763823271 0.7440361977 
73.81409454 -2.226145029 2.763184786 0.7440869808 
73.79896545 -1.631949067 2.762037992 0.7441782951 
73.79134369 -1.335016131 2.761529446 0.7442187667 
73.78368378 -1.038188338 2.761064291 0.7442557812 
73.77597809 -0.7414727807 2.760642052 0.7442893982 
73.76843262 -0.4448246658 2.760270834 0.7443189621 
73.75793457 0.1482449323 2.759833336 0.7443537712 
73.75267029 0.4447277784 2.759680033 0.7443659306 
73.71550751 2.519815922 2.759850502 0.7443524003 
73.71015167 2.816321135 2.760051727 0.7443363667 
73.70474243 3.112889051 2.760295868 0.7443169355 
73.70030975 3.409560204 2.760620117 0.7442910671 
73.69668579 3.706328869 2.761021137 0.7442592382 
73.69350433 4.003228188 2.761481762 0.7442225218 
73.72219086 4.897120476 2.764569044 0.7439767718 
82.04211426 13.13792229 3.108906746 0.7170697451 
81.34654236 14.03471851 3.088738441 0.7186185718 
80.0294342 15.80393124 3.052216053 0.7214240432 
78.77529144 16.21536255 3.009359598 0.7247469425 
78.58078003 17.16566277 3.009618521 0.7247268558 
78.57836151 18.16066742 3.017695189 0.7241009474 
78.57756042 18.49355125 3.020494938 0.7238841057 
78.57511902 19.49596977 3.029219389 0.7232088447 
78.57430267 19.8314209 3.03223753 0.7229754329 
43.50715256 11.1670208 1.680690289 0.8354411125 
78.57266235 20.50433731 3.03843689 0.7224960327 
78.57184601 20.84186172 3.04162097 0.7222499847 
78.56936646 21.85870743 3.051508188 0.7214864492 
78.56854248 22.19913292 3.054917574 0.7212233543 
78.56687927 22.88233566 3.061908007 0.7206842899 
78.56604767 23.22510529 3.065488815 0.7204082012 
78.56101227 25.29926491 3.088207245 0.7186594605 
78.56016541 25.64801216 3.092201471 0.718352437 
78.55760193 26.69973373 3.104551315 0.7174041867 
78.55588531 27.40562439 3.113088846 0.7167490721 
78.55329132 28.47189903 3.126366615 0.71573174 
78.55242157 28.82936859 3.130919695 0.7153832316 
29.28544807 11.01595688 1.170743346 0.8822826743 
29.1991787 11.11769772 1.169071674 0.8824404478 
29.13905144 11.2291317 1.168462515 0.8824980259 
78.54714203 30.99676704 3.159594774 0.7131921649 
78.54446411 32.09574509 3.174827099 0.7120309472 
79.97381592 33.81096268 3.248829365 0.7064148784 
79.78440094 34.10959244 3.246698618 0.7065774202 
79.0789566 34.18463135 3.223558903 0.7083287835 
78.73688507 34.41308594 3.215225697 0.7089602947 
50.96875763 22.52109337 2.084992647 0.8000775576 
78.53718567 35.08050919 3.218484402 0.7087132335 
78.53533173 35.83984375 3.230113506 0.707832098 
23.35341835 10.88510609 0.9640805125 0.9020054936 
23.17337799 11.02882767 0.9602822661 0.902372539 
23.22921753 11.17016125 0.964443326 0.9019703865 
23.18631744 11.3799448 0.9664312601 0.9017787576 
78.52779388 38.93429184 3.27962327 0.7040930986 
78.52683258 39.3278923 3.286159039 0.7036009431 
78.52586365 39.72303391 3.292774677 0.7031032443 
78.52490234 40.11980438 3.299469471 0.7025997043 
78.52392578 40.51821518 3.306247473 0.7020905614 
78.52000427 42.12843704 3.334176064 0.6999960542 
78.68073273 42.62293243 3.348245144 0.6989429593 
78.66213226 43.43447113 3.362207651 0.697899878 
19.46986198 10.8529377 0.8340478539 0.9146406651 
78.51502991 44.18066788 3.370996714 0.6972442269 
78.5140152 44.59660721 3.378623486 0.6966755986 
78.51299286 45.01442719 3.386338472 0.6961007714 
78.50991821 46.27954483 3.410031557 0.6943386793 
78.5057373 47.99452972 3.442928314 0.6918994188 
78.50467682 48.42847061 3.451392174 0.691273272 
78.5036087 48.86459351 3.459952831 0.6906404495 
78.50147247 49.7433548 3.4773736 0.6893545985 
78.5003891 50.18607712 3.486234665 0.6887015104 
16.6871376 10.85822487 0.7449358702 0.9234015942 
16.50812531 10.83646011 0.7388836741 0.9239996672 
16.2600193 10.95643902 0.7336373925 0.9245181084 
16.28965759 11.2644043 0.7410519123 0.9237852693 
16.27116203 11.34856796 0.7422793508 0.9236639738 
78.55067444 55.73044205 3.603756666 0.6800972819 
78.54644012 57.16389084 3.634926081 0.6778331995 
78.54501343 57.64725113 3.645555973 0.6770628691 
78.5435791 58.13341141 3.656305552 0.67628479 
78.54213715 58.62248993 3.667177677 0.6754986048 
78.53775024 60.10749435 3.700551033 0.6730912328 
78.61188507 61.17269516 3.727099419 0.671182394 
73.41894531 66.18694305 3.698655844 0.6732279658 
38.0946579 36.92593002 1.985139132 0.8086698651 
37.88117981 37.31435776 1.989583731 0.8082854748 
37.62536621 37.66320038 1.99198854 0.8080775142 
37.43706512 37.77722931 1.990043879 0.8082457185 
36.08658218 37.00486755 1.93400991 0.813105166 
35.93061829 37.14247131 1.933637023 0.8131375313 
35.77476883 37.28009415 1.933300138 0.8131669164 
35.60160446 37.39943695 1.932051301 0.8132755756 
35.37392044 37.46061325 1.927849054 0.8136410713 
34.92164993 37.58242035 1.91960752 0.8143588901 
9.838056564 10.9350853 0.5503826737 0.9428214431 
9.639033318 10.80089474 0.5416717529 0.943700254 
9.669306755 10.92288303 0.5458374023 0.943279922 
9.464247704 10.77822685 0.5367034674 0.9442021251 
9.441415787 10.9282074 0.5403747559 0.9438314438 
9.363886833 10.92695427 0.5384460092 0.9440261126 
9.283486366 11.10133553 0.5414831638 0.9437195063 
9.294150352 11.20532608 0.5447295904 0.9433919191 
31.1394825 38.79570007 1.861403108 0.819445312 
30.74614716 38.94293213 1.856547236 0.8198711276 
30.29821205 39.01649475 1.848383188 0.820587635 
29.48766518 38.9330101 1.827444434 0.8224275112 
28.95771408 38.87886047 1.813917756 0.8236186504 
30.004179 40.62368393 1.889680743 0.8169702291 
30.11222649 41.1147995 1.906879783 0.8154684901 
30.29460907 42.42785645 1.950691462 0.8116554618 
30.27294922 42.75995636 1.960348487 0.8108173013 
30.2511425 43.09543991 1.97013855 0.8099685907 
30.20709801 43.77701569 1.990129352 0.8082382679 
30.07446289 44.34325409 2.004815102 0.806969583 
29.95604515 44.55315399 2.008844614 0.8066218495 
9.34213829 35.94687271 1.389727116 0.8618552685 
9.184296608 35.93226624 1.387712717 0.8620399833 
8.892187119 35.99315262 1.387259841 0.8620818853 
8.585566521 35.99240494 1.384525061 0.8623340726 
2.557314396 11.1160202 0.4267968535 0.9553691149 
2.346992016 10.79606056 0.413395077 0.9567397833 
2.305585861 10.81484127 0.4137561023 0.9567028284 
2.134638548 10.86704159 0.4143862724 0.9566383362 
2.095380783 10.89864445 0.4152676165 0.9565482736 
1.991757751 10.58908653 0.4031631351 0.9577875733 
1.906337857 10.85387993 0.4123394787 0.9568477869 
1.904365182 11.10446548 0.4215652347 0.9559039474 
1.866035104 11.14984798 0.4229998589 0.9557572603 
13.31331062 99.00896454 3.737992525 0.6704006195 
12.9080658 99.00750732 3.735947847 0.6705472469 
12.50333977 99.00606537 3.733966589 0.670689404 
12.09903336 99.00460815 3.732048273 0.6708270907 
11.69508743 99.00315857 3.730190277 0.6709604263 
11.29159164 99.00171661 3.728396416 0.6710891724 
10.89724541 99.0802002 3.729675293 0.6709976196 
8.87828064 98.99590302 3.719029427 0.6717620492 
8.07644558 98.99487305 3.716431141 0.6719487906 
7.675898075 98.99436188 3.715224028 0.6720356345 
4.87870121 98.99076843 3.708466768 0.6725215316 
4.47987318 98.99026489 3.707742214 0.672573626 
4.081025124 98.98719788 3.706982851 0.6726282239 
-1.132460952 75.12088776 2.81114912 0.7402790785 
-1.435048819 75.14466858 2.812232018 0.7401933074 
-5.971738338 75.05853271 2.817369223 0.7397865057 
-0.7271484137 8.697072983 0.3265588284 0.9656690359 
-0.7918164134 8.63404274 0.3244204521 0.9658899307 
-0.8955175877 8.620213509 0.324282527 0.9659041166 
-9.319814682 75.01055145 2.828279972 0.7389235497 
-10.5455761 74.99907684 2.833876848 0.7384813428 
-11.16036129 74.99363708 2.836969614 0.7382370234 
-11.7765522 74.98822784 2.840255737 0.7379776239 
-12.08518505 74.9855423 2.84196949 0.7378422022 
-12.39425755 74.98286438 2.843733549 0.7377029657 
-12.70365238 74.98018646 2.845546246 0.7375599742 
-13.01346684 74.97753143 2.84740901 0.7374131083 
-29.96758652 69.90154266 2.845755577 0.7375431061 
-30.41056633 69.38910675 2.834753275 0.7384114861 
-30.63671875 69.14761353 2.829898596 0.7387952209 
-31.51596642 68.87718964 2.834180832 0.7384569049 
-32.27140427 69.78533936 2.876865864 0.7350926399 
-30.90372086 64.10170746 2.662702084 0.7521283627 
-30.90211868 63.44501877 2.640558481 0.7539117336 
-30.90054703 62.79931641 2.618839741 0.7556659579 
-30.89900398 62.16415024 2.597506762 0.757392168 
-30.89748001 61.53913879 2.576564312 0.7590911984 
-30.89598656 60.92418671 2.55599308 0.7607632875 
-30.89451027 60.31890106 2.535792828 0.7624093294 
-24.71683502 45.08422089 1.923804283 0.8139924407 
-24.71476555 44.23301315 1.895910621 0.8164259195 
-24.98332024 43.88138962 1.889387727 0.8169958591 
-25.11185455 42.89556503 1.859846711 0.8195818067 
-25.22622108 42.69636536 1.855591416 0.8199549913 
-25.34008789 42.49802017 1.851384282 0.8203241229 
-25.50246048 42.38205338 1.850783706 0.820376873 
-31.9447937 50.30117416 2.22960639 0.7877952456 
-32.11785889 50.12726593 2.227599382 0.7879641056 
-32.4630661 49.78037643 2.223712683 0.7882919908 
-32.97867203 49.26224899 2.21817565 0.7887592316 
-33.14999008 49.09010696 2.216408014 0.7889084816 
-33.49179459 48.74662399 2.212985277 0.7891973257 
-33.66230392 48.57530212 2.211329937 0.7893368602 
-34.51123047 47.72220612 2.203629732 0.7899872065 
-34.68031311 47.55230331 2.202203989 0.7901077867 
-35.01787186 47.21310425 2.19946456 0.7903394699 
-35.18634796 47.04380798 2.198156118 0.7904506326 
-35.69055557 46.53713608 2.194425583 0.7907654643 
-35.8583107 46.36857224 2.193263531 0.7908642292 
-36.0257988 46.20025635 2.192135572 0.7909598351 
-36.19316483 46.03207397 2.191041708 0.7910524011 
-36.36035919 45.86405563 2.189977407 0.7911419272 
-36.6942749 45.52851868 2.187970638 0.7913116813 
-36.86104584 45.36093521 2.187018394 0.7913920283 
-37.19408035 45.02627182 2.185240984 0.7915434241 
-30.83492088 35.8360405 1.768932462 0.8275911212 
-30.83420753 35.54520798 1.760680556 0.8283219934 
-30.83350563 35.25703812 1.752535939 0.829044342 
-30.83281136 34.97155762 1.744489074 0.8297580481 
-30.83212852 34.68866348 1.736544728 0.8304633498 
-30.8300972 33.85516739 1.713317275 0.8325302601 
-30.82943344 33.58224487 1.705753803 0.8332032561 
-30.82876968 33.3117218 1.698302627 0.833868444 
-30.828125 33.04357147 1.69093442 0.8345258236 
-30.82683563 32.51412964 1.676471472 0.8358181119 
-30.82619095 32.25281906 1.66937685 0.8364530206 
-30.82556534 31.99364662 1.662360191 0.8370808363 
-30.82494164 31.73667336 1.655431509 0.8377013803 
-30.82248878 30.72971535 1.62855649 0.840113759 
-30.82128906 30.23829842 1.615592599 0.8412795067 
-30.81837845 29.04312706 1.584518433 0.844080925 
-30.81668854 28.34771347 1.566735148 0.845687747 
-30.81503868 27.66759872 1.549576998 0.8472417593 
-30.81395531 27.2223587 1.538463712 0.8482493758 
-30.81341743 27.00211143 1.532999873 0.8487448692 
-30.8118248 26.35061646 1.517003775 0.8501989245 
-30.81130791 26.13645744 1.511793733 0.8506729603 
-30.81079102 25.92375374 1.506642461 0.85114187 
-30.81027222 25.71247482 1.501549602 0.8516056538 
-30.80825043 24.88145256 1.481759667 0.8534104824 
-30.80725479 24.47401047 1.47220397 0.8542836905 
-30.80676651 24.27227211 1.467506647 0.8547131419 
-31.09015465 23.89354515 1.467174649 0.8547437191 
-31.2022934 23.78084946 1.467941284 0.8546733856 
-31.42697144 23.55507278 1.469547749 0.8545259237 
-31.65217781 23.3287735 1.471266389 0.8543694615 
-31.8778801 23.10197258 1.473068237 0.8542039394 
-31.9909668 22.98833466 1.474020362 0.8541177511 
-32.10419846 22.87455559 1.474992037 0.8540292978 
-32.217556 22.76063728 1.475973487 0.8539386392 
-32.33107376 22.64656448 1.476998925 0.8538455963 
-32.44477463 22.5323143 1.478038907 0.8537502289 
-32.67263412 22.303339 1.48020196 0.8535526991 
-32.78682709 22.18859291 1.48132503 0.8534503579 
-32.90117264 22.07368088 1.482472539 0.8533458114 
-33.01571274 21.95858765 1.483639479 0.8532388806 
-33.24534988 21.72782135 1.486061335 0.8530179262 
-33.36044693 21.61217499 1.487316251 0.8529039025 
-33.47576141 21.49629784 1.488590717 0.8527874947 
-33.70693207 21.2639904 1.491217613 0.852547586 
-33.82286072 21.14749908 1.492575049 0.8524240255 
-34.05531311 20.91391754 1.495358229 0.8521696925 
-34.28866196 20.67942619 1.498258591 0.8519055843 
-34.40569305 20.56183624 1.499747872 0.8517698646 
-34.64043045 20.32593536 1.502809405 0.8514910936 
-28.95264626 16.52242279 1.247320533 0.875084579 
-28.94628906 16.3648777 1.244202495 0.8753765225 
-35.58953857 19.3721981 1.516163945 0.8502755761 
-35.70938492 19.25176811 1.517955899 0.8501121998 
-35.94997025 19.01001358 1.521637559 0.8497775793 
-36.07069397 18.8887043 1.523527145 0.8496063352 
-36.19171906 18.76708031 1.525436401 0.8494324684 
-29.49087906 15.14226532 1.240429044 0.8757299781 
-28.08971596 13.71657944 1.169659734 0.8823850155 
-29.58824158 14.30130482 1.229654193 0.8767399192 
-29.60230446 14.16159153 1.227863073 0.8769079447 
-29.64676666 14.03670502 1.227356791 0.87695539 
-29.77303696 13.95023251 1.230252028 0.8766838312 
-29.89989281 13.8633728 1.233181715 0.8764091134 
-30.02741051 13.77609634 1.236146808 0.8761311769 
-30.05017471 13.64057922 1.234816313 0.8762558699 
-30.20595551 13.56511211 1.238966703 0.87586689 
-28.69770432 12.61150742 1.172905803 0.882078588 
-29.20292854 12.55440521 1.189391732 0.8805243969 
-31.37619972 13.19082355 1.273544312 0.87263304 
-39.07076263 15.87398815 1.577970505 0.8446714878 
-39.20065308 15.74346447 1.580656052 0.8444296122 
-39.33099365 15.61248875 1.583366036 0.8441846371 
-30.81212807 12.08776855 1.238452077 0.8759151101 
-31.26965714 11.97805786 1.252931476 0.8745595217 
-31.63537979 11.6826458 1.261848688 0.8737257123 
-41.44158936 14.92649174 1.648156047 0.8383544087 
-43.05223465 14.92257214 1.70492363 0.8332780004 
-45.3812294 14.91690254 1.787423611 0.8259561658 
-47.28188324 14.91227627 1.855070114 0.8200010061 
-47.94778061 14.91065598 1.878825068 0.8179194331 
-48.63094711 14.90899181 1.903224468 0.8157867193 
-50.79167938 14.90373421 1.980617046 0.8090612292 
-51.55160141 14.90188313 2.007902145 0.8067035079 
-37.38057709 10.64287186 1.454101801 0.8559242487 
-61.60200882 15.94352627 2.380930662 0.7751449347 
-61.17116928 15.56991196 2.361840725 0.7767295837 
-60.92136765 14.72638512 2.345168352 0.7781162262 
-59.43681335 14.11484432 2.285817862 0.7830723524 
-59.72257614 13.92935371 2.294635534 0.7823339701 
-59.87060547 13.71032715 2.298186064 0.7820368409 
-60.83251953 13.41680527 2.330894709 0.7793052793 
-60.62308502 12.60594654 2.316876173 0.7804748416 
-60.72867203 12.37345028 2.318991661 0.780298233 
-60.8359375 11.88666821 2.319362164 0.7802672386 
-60.80451202 11.62698364 2.316364765 0.7805175781 
-91.70265198 -12.98825073 1.154674649 0.6903888583 
-66.77974701 -12.76953983 0.8476355076 0.7618696094 
-48.70044708 -10.12674522 0.6201400757 0.8195628524 
-65.04534912 -14.34594536 0.8304141164 0.7660904527 
-65.0446701 -14.62024212 0.8311492801 0.765909791 
-65.04399872 -14.89502239 0.8318988085 0.765725553 
-65.04333496 -15.17032909 0.8326635361 0.7655376792 
-65.03996277 -16.55461884 0.8367120028 0.7645439506 
-65.03588104 -18.23447418 0.8420733213 0.7632297873 
-65.0351944 -18.51660347 0.843021214 0.7629976273 
-65.03380585 -19.08276176 0.8449652195 0.7625219822 
-65.0324173 -19.65157127 0.8469726443 0.7620309591 
-65.02962494 -20.79752922 0.8511816263 0.7610024214 
-65.02892303 -21.0858593 0.8522741795 0.7607354522 
-63.1115036 -21.02635956 0.8293280005 0.7663559914 
-62.26943207 -21.02430916 0.8193719387 0.7688094378 
-61.44739914 -21.02230835 0.8096551299 0.7712088227 
-59.86037064 -21.01844597 0.7909491062 0.7758527994 
-58.34494019 -21.01475716 0.7731316686 0.780300796 
-54.83831787 -21.00621986 0.7321112156 0.7906388044 
-54.18109131 -21.00462151 0.7244598269 0.7925826311 
-52.90700912 -21.00152016 0.7096551061 0.7963557839 
-52.28931427 -21.00001717 0.7024969459 0.7981871367 
-51.68384552 -20.99854279 0.6954949498 0.7999834418 
-49.37812424 -20.99293137 0.6689227223 0.8068332076 
-48.28978348 -20.99028015 0.656442225 0.8100702167 
-47.76081848 -20.9889946 0.6503973007 0.8116440773 
-47.24137497 -20.98772812 0.6444647312 0.8131898642 
-46.73137665 -20.98648834 0.6386541724 0.814707756 
-45.61124802 -21.14806557 0.626779139 0.8178161979 
-45.61070251 -21.37101555 0.627951026 0.8175097108 
-45.61016464 -21.59480667 0.6291375756 0.8171995282 
-26.97341728 -13.03744507 0.3735027909 0.8870577216 
-45.60741043 -22.72662544 0.6352703571 0.815592289 
-45.60684586 -22.95565414 0.636544764 0.815259397 
-45.60628891 -23.18563843 0.6378338337 0.8149225116 
-45.60573196 -23.4165287 0.6391375661 0.8145817518 
-45.60516357 -23.64840317 0.6404559016 0.8142369986 
-45.604599 -23.8812294 0.6417937875 0.8138882518 
-45.60402298 -24.11499214 0.6431414485 0.8135355711 
-45.60172653 -25.06023598 0.6487078667 0.8120835423 
-45.60056686 -25.53907394 0.6515936255 0.8113325834 
-45.59820175 -26.5097847 0.6575652957 0.8097791672 
-45.59759521 -26.7552681 0.659098506 0.8093798757 
-45.59457016 -28.00034523 0.6670574546 0.8073158264 
-45.59395218 -28.2530117 0.66870296 0.8068891764 
-45.59333801 -28.50691605 0.6703729033 0.8064579368 
-45.44667053 -29.18338394 0.6733416319 0.8056898713 
-44.65000916 -29.18144417 0.6649920344 0.8078511357 
-42.37355423 -29.17590332 0.6413836479 0.8139939308 
-42.00973511 -29.17501831 0.6376482844 0.8149705529 
-41.29459 -29.17327881 0.6303338408 0.8168857098 
-40.94312286 -29.1724205 0.6267547607 0.8178245425 
-40.59565353 -29.17157555 0.6232244968 0.8187511563 
-39.9122467 -29.16991234 0.6163104177 0.8205688596 
-38.58972549 -29.16669273 0.6030584574 0.8240668774 
-38.26791763 -29.16591072 0.5998553038 0.824913919 
-37.94947052 -29.16513634 0.5966961384 0.8257504106 
-37.6916008 -29.20871544 0.59448421 0.8263370395 
-37.69101334 -29.45152473 0.596334815 0.825845778 
-37.69041824 -29.69582748 0.5982049704 0.8253492713 
-37.68861389 -30.43821144 0.6039617658 0.8238267899 
-37.68799591 -30.68883514 0.6059295535 0.8233082891 
-37.68738174 -30.9411068 0.6079071164 0.8227840662 
-37.68676758 -31.19508743 0.6099139452 0.8222540617 
-37.68551636 -31.70806313 0.6140057445 0.821176827 
-37.68488312 -31.9671669 0.6160858274 0.8206292987 
-37.68424606 -32.22800446 0.6181805134 0.8200758696 
-37.68361282 -32.49067307 0.6203143001 0.8195162416 
-37.68296814 -32.75510406 0.6224627495 0.8189506531 
-37.68101501 -33.55967331 0.6290740967 0.8172160983 
-37.68035126 -33.83169174 0.6313250661 0.8166251779 
-37.67967606 -34.10568619 0.633605361 0.8160277009 
-37.67765427 -34.93964767 0.640612185 0.8141955733 
-37.67696381 -35.2217865 0.643004775 0.8135712743 
-37.67626953 -35.50604248 0.645426631 0.8129400015 
-37.67557526 -35.79241943 0.6478680372 0.8123018146 
-37.67273331 -36.96015167 0.6579559445 0.809677124 
-37.67201233 -37.2578392 0.6605584621 0.809002459 
-37.67127991 -37.55786896 0.6631854177 0.8083202839 
-37.66905212 -38.47264481 0.6712664366 0.8062269688 
-37.66599655 -39.72766876 0.6825066805 0.8033241034 
-37.66443253 -40.37116623 0.6883367896 0.8018226027 
-37.6628418 -41.02584839 0.6943182349 0.8002863526 
-37.66202927 -41.35747147 0.6973602176 0.7995049357 
-37.65872955 -42.71374512 0.709918797 0.7962878346 
-37.65787888 -43.06048584 0.7131707668 0.7954601049 
-37.65530014 -44.12015152 0.7231463194 0.7929179072 
-37.6544342 -44.48002243 0.7265545726 0.7920504212 
-37.65265656 -45.2100296 0.7335028052 0.7902846336 
-37.65174866 -45.58032608 0.737057507 0.7893859148 
-37.64992142 -46.33179474 0.7442889214 0.7875561118 
-44.66912079 -55.88157272 0.8919012547 0.7511234283 
-42.14324951 -55.87542725 0.8725237846 0.7558079362 
-41.79131699 -55.87457275 0.8698797226 0.7564493418 
-41.44143295 -55.87371826 0.8672698736 0.7570841312 
-40.06267548 -55.87036896 0.857106328 0.7595568895 
-39.38525391 -55.86872101 0.85219419 0.7607546449 
-39.04942322 -55.86790466 0.8497821093 0.7613440752 
-38.01944351 -56.79195786 0.8520233035 0.7607926726 
-25.23458862 -38.35797882 0.5724163651 0.8322092891 
-38.01578903 -58.29520035 0.8677215576 0.7569912672 
-38.01327896 -59.32843018 0.8784515262 0.7543722987 
-37.18954086 -59.61338425 0.8759661913 0.7549741268 
-36.85695267 -59.61257553 0.8737713695 0.7555063367 
-36.52600479 -59.61177063 0.8715984821 0.7560328245 
-35.54297638 -59.60938263 0.8652361631 0.7575786114 
-35.21845627 -59.60859299 0.8631609678 0.7580828071 
-34.89550781 -59.60780716 0.8611102104 0.7585815191 
-34.5740509 -59.60702515 0.8590838313 0.7590748668 
-34.2612114 -60.17726898 0.8633123636 0.7580475807 
-34.25703049 -61.89420319 0.881942749 0.7535271645 
-34.25117111 -64.302742 0.9083001614 0.7471820712 
-34.24964905 -64.92762756 0.9151702523 0.7455357909 
-34.24653244 -66.20620728 0.9292864799 0.7421678305 
-34.24332809 -67.5248642 0.9438934326 0.7386958003 
-34.24000931 -68.88578033 0.9590447545 0.7351149321 
-34.2383194 -69.58268738 0.9668206573 0.7332823873 
-34.23659134 -70.2911377 0.9747454524 0.731420517 
-34.23305511 -71.74342346 0.9910369515 0.7276073098 
-34.23123932 -72.487854 0.9994085431 0.7256547809 
-25.2024498 -55.66958237 0.7618463039 0.7831323743 
-27.92787933 -80.83569336 1.066239238 0.7102607489 
-1.580703139 -12.3175087 0.1548251361 0.951535821 
-1.437665939 -12.38396168 0.1554308981 0.9513508081 
-0.5742480159 -81.63169098 1.017735243 0.7214009166 
2.982441425 -52.00697327 0.6494402885 0.8118937016 
3.190585852 -51.97981644 0.6492596269 0.8119416833 
2.935683489 -42.26705551 0.5282159448 0.844096303 
3.106425762 -42.26663971 0.5283623934 0.8440566063 
3.448222637 -42.26580811 0.5286834836 0.8439701796 
2.818789005 -32.91731262 0.4118841588 0.8761995435 
2.952109337 -32.91698837 0.4120318592 0.8761599064 
3.620165825 -32.9153595 0.4128399491 0.8759329915 
2.953359365 -24.16695976 0.3035333157 0.9071979523 
3.051982403 -24.16671753 0.3036797941 0.9071547389 
3.150702953 -24.16647911 0.3038262725 0.9071099758 
3.348447084 -24.16599846 0.3041522205 0.9070160985 
3.44748044 -24.16575623 0.3043182194 0.9069669247 
3.645888567 -24.16526985 0.3046795726 0.9068641663 
2.817167997 -17.70625114 0.2235491872 0.9307901263 
2.816064358 -17.25209618 0.217919305 0.9324617982 
2.955419779 -16.82693291 0.212991327 0.933939755 
3.02517581 -16.82676315 0.2131378055 0.9338948131 
3.164970636 -16.82642365 0.2134527564 0.9338015914 
3.728554487 -16.82505035 0.2148443609 0.9333842397 
3.870644331 -16.82470512 0.2152313143 0.9332686663 
4.013251781 -16.82435799 0.2156304866 0.9331485033 
4.084765434 -16.82418251 0.2158306837 0.9330866337 
4.156405926 -16.82400894 0.2160516381 0.9330236912 
4.300127029 -16.82365799 0.2164813131 0.9328941703 
4.372207165 -16.82348442 0.2167071551 0.9328277111 
4.589345455 -16.82295418 0.2173968405 0.9326210618 
4.734892368 -16.82259941 0.2178778052 0.932477355 
4.807909966 -16.82242203 0.2181182802 0.9324036837 
15.98325157 -51.94868088 0.6775872707 0.8045883179 
16.21193314 -51.94812393 0.6784478426 0.8043721914 
14.51706028 -42.29400253 0.5576336384 0.8362076879 
14.68805599 -42.23845291 0.5575042367 0.8361965418 
14.87846661 -42.23798752 0.5583367944 0.8359876275 
15.45302677 -42.23658752 0.5607281327 0.8353430033 
16.22699165 -42.23470306 0.5640509129 0.834441185 
16.42194366 -42.23422623 0.564956665 0.8342081308 
14.36522388 -33.32281876 0.4523980618 0.8648834229 
14.36432552 -32.95566559 0.448212266 0.866050899 
15.93574142 -32.88537979 0.4555901885 0.8639990091 
16.09912109 -32.88498306 0.4564837515 0.8637530208 
16.26312447 -32.88458252 0.457372427 0.8635041118 
26.99012566 -51.92189026 0.7295208573 0.7912906408 
27.25549698 -51.92124557 0.7310625911 0.7909035683 
27.52194214 -51.92059326 0.7326019406 0.7905122042 
27.7895298 -51.91994095 0.7341461182 0.7901163101 
28.32816315 -51.91863251 0.737339437 0.7893109322 
39.94820404 -70.495224 1.010174274 0.7231528163 
41.44228363 -72.45113373 1.040580988 0.7161316276 
14.50469685 -24.89123535 0.3592547476 0.8911477327 
14.50359344 -24.43557167 0.3542803824 0.8925510049 
14.59105396 -24.13863182 0.3516424596 0.8933004141 
14.99085903 -24.13765907 0.3542388976 0.8925572634 
15.39666939 -24.13666916 0.3569036722 0.8917887211 
15.67067337 -24.13599968 0.3587493896 0.8912618756 
15.94752884 -24.13532639 0.3606170714 0.8907231688 
38.20223236 -52.60310745 0.8105022907 0.7710004449 
38.2011528 -52.15929413 0.8060247898 0.7721091509 
38.32849503 -51.89429092 0.8043047786 0.7725356221 
38.97600555 -51.89271545 0.8091131449 0.7713451385 
39.30266953 -51.89191818 0.8116314411 0.7707403898 
39.96200562 -51.89031219 0.8165704012 0.7695114017 
40.29473114 -51.88950729 0.8190472126 0.768887043 
26.36610222 -33.67263031 0.5332000852 0.8427529931 
26.36542892 -33.3943367 0.5304168463 0.8434922695 
26.3751564 -32.85997391 0.5253118873 0.8448836207 
26.59263611 -32.85944366 0.526976943 0.8444238901 
14.39635754 -17.35670471 0.2810955644 0.9137413502 
14.39601517 -17.2149868 0.279738158 0.9141402841 
14.39533138 -16.93559837 0.2771246135 0.9149233699 
14.63140583 -16.79851151 0.2777264416 0.9147401452 
14.75033188 -16.7982235 0.2787200809 0.9144545197 
14.99071217 -16.79763794 0.2807073891 0.9138734341 
15.11217785 -16.79734039 0.2817095816 0.9135779738 
15.35778332 -16.79674339 0.2837396264 0.9129768014 
15.6070013 -16.79613686 0.2858441174 0.9123617411 
15.73299789 -16.79582977 0.286919564 0.9120488763 
15.98785114 -16.79520798 0.2890765369 0.9114123583 
16.1167469 -16.79489517 0.290183723 0.9110885262 
16.24661064 -16.79457855 0.2913519144 0.9107610583 
16.37751007 -16.79426193 0.2924603224 0.9104296565 
26.50469589 -24.8775425 0.453251332 0.8646633029 
26.50420761 -24.67742538 0.4514117241 0.8651373982 
26.52870941 -24.10957527 0.4469110072 0.8664063811 
26.74335861 -24.10905266 0.4489043951 0.8658562303 
27.39888573 -24.10745621 0.4549566507 0.8641659617 
27.62137604 -24.10691071 0.4570355117 0.8635889292 
28.30129814 -24.10525513 0.463408798 0.8618155122 
39.49766541 -32.82802582 0.6403082013 0.8142792583 
39.82129669 -32.82723999 0.6434063315 0.8134692311 
48.62464905 -33.04957962 0.7329314947 0.7904200554 
